-0.074560 -0.074560 0.180004
0.208615 -0.194607 -0.209464
0.505692 0.580923 -0.177043
-0.205981 0.497283 0.566624
-0.161755 -0.204444 0.493571
0.558189 -0.146921 -0.202929
0.489915 0.550257 -0.132510
-0.201437 0.486312 0.542803
-0.118491 -0.199966 0.482762
0.535804 -0.104835 -0.198517
0.479263 0.529238 -0.091651
-0.197378 0.476514 0.523854
-0.079064 -0.197065 0.475757
0.520990 -0.066621 -0.196753
0.475003 0.518438 -0.054304
-0.196441 0.474251 0.516190
-0.042098 -0.196131 0.473501
0.514240 -0.029984 -0.195821
0.472754 0.512583 -0.018004
-0.196139 0.473522 0.512852
-0.006020 -0.196832 0.475196
0.514383 0.006041 -0.197531
0.476882 0.516209 0.018196
-0.198234 0.478580 0.518331
0.030462 -0.198943 0.480290
0.520754 0.042854 -0.199656
0.482013 0.523484 0.055607
-0.201152 0.485623 0.528568
0.068753 -0.203050 0.490207
0.535032 0.082242 -0.204985
0.494879 0.541929 0.096099
-0.206958 0.499640 0.549278
0.110355 -0.208968 0.504494
0.557099 0.125040 -0.211018
0.509442 0.565416 0.141624
-0.215291 0.519758 0.580134
0.158748 -0.219264 0.529351
0.594550 0.176743 -0.223388
0.539306 0.609910 0.195684
-0.227669 0.549642 0.626284
0.219502 -0.236259 0.570381
0.655236 0.240164 -0.240164
0.579806 0.671962 -0.212774
-0.197681 0.513681 0.590100
-0.194607 -0.194607 0.505692
0.575733 -0.177043 -0.191371
0.497283 0.561477 -0.161755
-0.189943 0.493571 0.553042
-0.146921 -0.188535 0.489915
0.545113 -0.132510 -0.187149
0.486312 0.537664 -0.118491
-0.185783 0.482762 0.530673
-0.104835 -0.184436 0.479263
0.524119 -0.091651 -0.183378
0.476514 0.518741 -0.079064
-0.183087 0.475757 0.515865
-0.066621 -0.182797 0.475003
0.513303 -0.054304 -0.182507
0.474251 0.511050 -0.042098
-0.182219 0.473501 0.509097
-0.029984 -0.181931 0.472754
0.507439 -0.018004 -0.182227
0.473521 0.507694 -0.006020
-0.182871 0.475196 0.509204
0.006041 -0.183520 0.476882
0.511011 0.018196 -0.184173
0.478580 0.513117 0.030462
-0.184832 0.480290 0.515528
0.042854 -0.185494 0.482012
0.518248 0.055607 -0.186884
0.485623 0.523304 0.068753
-0.188648 0.490207 0.529734
0.082242 -0.190446 0.494878
0.536598 0.096099 -0.192278
0.499640 0.543917 0.110355
-0.194146 0.504494 0.551710
0.125040 -0.196050 0.509442
0.560002 0.141624 -0.200020
0.519757 0.574641 0.158748
-0.203712 0.529351 0.588992
0.176743 -0.207543 0.539306
0.604287 0.195684 -0.211520
0.549641 0.620595 0.219501
-0.219501 0.570380 0.649381
0.244807 -0.227442 0.591016
0.678940 -0.212773 -0.182881
0.513680 0.585308 -0.194607
-0.180037 0.505692 0.570972
-0.177043 -0.177043 0.497283
0.556757 -0.161755 -0.175721
0.493571 0.548320 -0.146921
-0.174420 0.489915 0.540393
-0.132510 -0.173137 0.486312
0.532949 -0.118491 -0.171873
0.482761 0.525965 -0.104835
-0.170627 0.479263 0.519420
-0.091651 -0.169649 0.476514
0.514048 -0.079064 -0.169379
0.475757 0.511160 -0.066621
-0.169111 0.475003 0.508590
-0.054304 -0.168843 0.474251
0.506331 -0.042098 -0.168576
0.473501 0.504374 -0.029984
-0.168310 0.472754 0.502716
-0.018004 -0.168583 0.473521
0.502958 -0.006020 -0.169179
0.475195 0.504449 0.006041
-0.169780 0.476882 0.506239
0.018196 -0.170384 0.478580
0.508331 0.030462 -0.170993
0.480290 0.510730 0.042854
-0.171606 0.482012 0.513440
0.055607 -0.172892 0.485623
0.518472 0.068753 -0.174524
0.490207 0.524870 0.082242
-0.176187 0.494878 0.531705
0.096099 -0.177882 0.499640
0.538996 0.110354 -0.179610
0.504493 0.546764 0.125040
-0.181372 0.509442 0.555034
0.141624 -0.185044 0.519757
0.569602 0.158748 -0.188460
0.529351 0.583893 0.176743
-0.192004 0.539305 0.599127
0.195684 -0.195684 0.549641
0.615378 0.219501 -0.203067
0.570380 0.644011 0.244807
-0.210414 0.591016 0.673427
-0.212773 -0.168345 0.513680
0.580930 -0.194607 -0.165727
0.505692 0.566623 -0.177043
-0.162971 0.497283 0.552443
-0.161755 -0.161755 0.493571
0.544005 -0.146921 -0.160556
0.489914 0.536079 -0.132510
-0.159375 0.486312 0.528638
-0.118491 -0.158212 0.482761
0.521661 -0.104835 -0.157065
0.479263 0.515124 -0.091651
-0.156164 0.476513 0.509757
-0.079064 -0.155916 0.475757
0.506858 -0.066621 -0.155669
0.475003 0.504280 -0.054304
-0.155423 0.474250 0.502015
-0.042098 -0.155177 0.473501
0.500055 -0.029984 -0.154932
0.472754 0.498396 -0.018004
-0.155184 0.473521 0.498626
-0.006020 -0.155732 0.475195
0.500099 0.006041 -0.156285
0.476881 0.501874 0.018196
-0.156842 0.478580 0.503953
0.030462 -0.157402 0.480290
0.506341 0.042854 -0.157966
0.482012 0.509044 0.055607
-0.159150 0.485623 0.514053
0.068753 -0.160652 0.490207
0.520422 0.082241 -0.162183
0.494878 0.527230 0.096099
-0.163743 0.499640 0.534497
0.110354 -0.165334 0.504493
0.542242 0.125040 -0.166956
0.509442 0.550491 0.141624
-0.170336 0.519757 0.564995
0.158748 -0.173480 0.529351
0.579231 0.176743 -0.176743
0.539305 0.594412 0.195684
-0.180130 0.549641 0.610610
0.219501 -0.186927 0.570380
0.639105 0.244807 -0.193689
0.591015 0.668390 -0.212773
-0.154048 0.513680 0.576950
-0.194607 -0.151653 0.505692
0.562667 -0.177043 -0.149131
0.497282 0.548520 -0.161755
-0.148018 0.493571 0.540080
-0.146921 -0.146921 0.489914
0.532154 -0.132510 -0.145841
0.486312 0.524717 -0.118491
-0.144776 0.482761 0.517744
-0.104835 -0.143727 0.479263
0.511215 -0.091651 -0.142902
0.476513 0.505852 -0.079064
-0.142675 0.475757 0.502943
-0.066621 -0.142449 0.475002
0.500357 -0.054304 -0.142224
0.474250 0.498086 -0.042098
-0.141999 0.473501 0.496124
-0.029984 -0.141775 0.472754
0.494464 -0.018004 -0.142005
0.473521 0.494684 -0.006020
-0.142507 0.475195 0.496140
0.006041 -0.143013 0.476881
0.497901 0.018196 -0.143522
0.478579 0.499968 0.030462
-0.144035 0.480290 0.502347
0.042854 -0.144551 0.482012
0.505042 0.055607 -0.145634
0.485623 0.510030 0.068753
-0.147009 0.490207 0.516373
0.082241 -0.148410 0.494878
0.523157 0.096099 -0.149838
0.499639 0.530401 0.110354
-0.151293 0.504493 0.538127
0.125040 -0.152777 0.509442
0.546358 0.141623 -0.155871
0.519757 0.560803 0.158748
-0.158748 0.529351 0.574990
0.176743 -0.161733 0.539305
0.590123 0.195684 -0.164833
0.549641 0.606273 0.219501
-0.171052 0.570380 0.634644
0.244807 -0.177240 0.591015
0.663810 -0.212773 -0.139968
0.513680 0.573350 -0.194607
-0.137791 0.505691 0.559090
-0.177043 -0.135499 0.497282
0.544971 -0.161755 -0.134488
0.493571 0.536529 -0.146921
-0.133492 0.489914 0.528603
-0.132510 -0.132510 0.486311
0.521168 -0.118491 -0.131543
0.482761 0.514200 -0.104835
-0.130589 0.479263 0.507678
-0.091651 -0.129840 0.476513
0.502318 -0.079064 -0.129634
0.475756 0.499400 -0.066621
-0.129429 0.475002 0.496807
-0.054304 -0.129224 0.474250
0.494531 -0.042098 -0.129019
0.473501 0.492566 -0.029984
-0.128816 0.472753 0.490906
-0.018004 -0.129025 0.473521
0.491115 -0.006020 -0.129481
0.475195 0.492557 0.006041
-0.129941 0.476881 0.494304
0.018196 -0.130403 0.478579
0.496361 0.030462 -0.130869
0.480289 0.498731 0.042854
-0.131339 0.482012 0.501420
0.055607 -0.132322 0.485623
0.506390 0.068753 -0.133571
0.490207 0.512709 0.082241
-0.134844 0.494878 0.519472
0.096099 -0.136142 0.499639
0.526696 0.110354 -0.137464
0.504493 0.534404 0.125040
-0.138813 0.509442 0.542619
0.141623 -0.141623 0.519757
0.557011 0.158748 -0.144237
0.529350 0.571154 0.176743
-0.146950 0.539305 0.586244
0.195684 -0.149766 0.549641
0.602351 0.219501 -0.155417
0.570380 0.630610 0.244806
-0.161040 0.591015 0.659668
-0.212773 -0.126080 0.513680
0.570119 -0.194607 -0.124119
0.505691 0.555879 -0.177043
-0.122055 0.497282 0.541785
-0.161754 -0.121144 0.493571
0.533341 -0.146921 -0.120247
0.489914 0.525415 -0.132510
-0.119362 0.486311 0.517982
-0.118491 -0.118491 0.482761
0.511017 -0.104835 -0.117632
0.479263 0.504500 -0.091651
-0.116957 0.476513 0.499143
-0.079064 -0.116772 0.475756
0.496217 -0.066621 -0.116587
0.475002 0.493617 -0.054304
-0.116402 0.474250 0.491337
-0.042098 -0.116218 0.473500
0.489368 -0.029984 -0.116035
0.472753 0.487708 -0.018004
-0.116223 0.473521 0.487908
-0.006020 -0.116634 0.475195
0.489336 0.006041 -0.117048
0.476881 0.491073 0.018196
-0.117465 0.478579 0.493120
0.030462 -0.117884 0.480289
0.495482 0.042854 -0.118307
0.482012 0.498165 0.055607
-0.119193 0.485623 0.503119
0.068753 -0.120318 0.490207
0.509417 0.082241 -0.121465
0.494878 0.516160 0.096099
-0.122634 0.499639 0.523367
0.110354 -0.123825 0.504493
0.531059 0.125040 -0.125040
0.509442 0.539259 0.141623
-0.127571 0.519757 0.553605
0.158748 -0.129926 0.529350
0.567709 0.176743 -0.132369
0.539305 0.582760 0.195683
-0.134906 0.549641 0.598829
0.219501 -0.139996 0.570380
0.626987 0.244806 -0.145061
0.591015 0.655951 -0.212773
-0.112364 0.513680 0.567243
-0.194607 -0.110616 0.505691
0.553020 -0.177043 -0.108777
0.497282 0.538949 -0.161754
-0.107965 0.493571 0.530502
-0.146921 -0.107165 0.489914
0.522576 -0.132510 -0.106377
0.486311 0.515144 -0.118491
-0.105601 0.482761 0.508183
-0.104835 -0.104835 0.479262
0.501670 -0.091651 -0.104234
0.476513 0.496316 -0.079064
-0.104068 0.475756 0.493381
-0.066621 -0.103903 0.475002
0.490776 -0.054304 -0.103739
0.474250 0.488491 -0.042098
-0.103575 0.473500 0.486521
-0.029984 -0.103411 0.472753
0.484859 -0.018004 -0.103579
0.473521 0.485051 -0.006020
-0.103946 0.475195 0.486468
0.006041 -0.104314 0.476881
0.488194 0.018196 -0.104686
0.478579 0.490233 0.030462
-0.105060 0.480289 0.492588
0.042854 -0.105437 0.482012
0.495266 0.055607 -0.106227
0.485622 0.500205 0.068753
-0.107229 0.490207 0.506486
0.082241 -0.108251 0.494878
0.513211 0.096099 -0.109293
0.499639 0.520403 0.110354
-0.110354 0.504493 0.528080
0.125040 -0.111437 0.509441
0.536268 0.141623 -0.113693
0.519757 0.550573 0.158748
-0.115792 0.529350 0.564641
0.176743 -0.117969 0.539304
0.579659 0.195683 -0.120230
0.549641 0.595695 0.219501
-0.124767 0.570380 0.623763
0.244806 -0.129280 0.591015
0.652642 -0.212773 -0.098799
0.513680 0.564713 -0.194607
-0.097263 0.505691 0.550504
-0.177043 -0.095645 0.497282
0.536453 -0.161754 -0.094931
0.493570 0.528004 -0.146921
-0.094228 0.489914 0.520077
-0.132510 -0.093535 0.486311
0.512646 -0.118491 -0.092852
0.482761 0.505687 -0.104835
-0.092179 0.479262 0.499179
-0.091651 -0.091651 0.476513
0.493826 -0.079064 -0.091505
0.475756 0.490885 -0.066621
-0.091360 0.475002 0.488274
-0.054304 -0.091215 0.474250
0.485986 -0.042098 -0.091071
0.473500 0.484013 -0.029984
-0.090927 0.472753 0.482351
-0.018004 -0.091075 0.473521
0.482535 -0.006020 -0.091397
0.475195 0.483942 0.006041
-0.091721 0.476881 0.485659
0.018196 -0.092048 0.478579
0.487690 0.030462 -0.092377
0.480289 0.490040 0.042854
-0.092708 0.482011 0.492713
0.055607 -0.093403 0.485622
0.497640 0.068753 -0.094284
0.490206 0.503903 0.082241
-0.095183 0.494877 0.510614
0.096099 -0.096099 0.499639
0.517792 0.110354 -0.097032
0.504493 0.525458 0.125040
-0.097984 0.509441 0.533635
0.141623 -0.099968 0.519756
0.547903 0.158748 -0.101813
0.529350 0.561941 0.176743
-0.103728 0.539304 0.576929
0.195683 -0.105716 0.549640
0.592935 0.219501 -0.109704
0.570379 0.620925 0.244806
-0.113673 0.591014 0.649730
-0.212773 -0.085366 0.513680
0.562518 -0.194607 -0.084038
0.505691 0.548322 -0.177042
-0.082641 0.497282 0.534287
-0.161754 -0.082024 0.493570
0.525836 -0.146921 -0.081416
0.489914 0.517909 -0.132510
-0.080818 0.486311 0.510479
-0.118491 -0.080228 0.482761
0.503522 -0.104835 -0.079646
0.479262 0.497017 -0.091651
-0.079189 0.476513 0.491666
-0.079064 -0.079064 0.475756
0.488719 -0.066621 -0.078938
0.475002 0.486103 -0.054304
-0.078813 0.474250 0.483811
-0.042098 -0.078689 0.473500
0.481837 -0.029984 -0.078565
0.472753 0.480174 -0.018004
-0.078692 0.473521 0.480352
-0.006020 -0.078970 0.475195
0.481749 0.006041 -0.079251
0.476881 0.483459 0.018196
-0.079533 0.478579 0.485483
0.030462 -0.079817 0.480289
0.487828 0.042854 -0.080103
0.482011 0.490498 0.055607
-0.080703 0.485622 0.495413
0.068753 -0.081465 0.490206
0.501663 0.082241 -0.082241
0.494877 0.508361 0.096099
-0.083033 0.499639 0.515527
0.110354 -0.083839 0.504492
0.523182 0.125040 -0.084662
0.509441 0.531350 0.141623
-0.086376 0.519756 0.545586
0.158748 -0.087970 0.529350
0.559599 0.176742 -0.089624
0.539304 0.574560 0.195683
-0.091342 0.549640 0.590542
0.219501 -0.094789 0.570379
0.618464 0.244806 -0.098218
0.591014 0.647205 -0.212773
-0.072045 0.513679 0.560651
-0.194607 -0.070925 0.505691
0.546466 -0.177042 -0.069746
0.497282 0.532445 -0.161754
-0.069225 0.493570 0.523993
-0.146921 -0.068712 0.489913
0.516064 -0.132510 -0.068207
0.486311 0.508635 -0.118491
-0.067709 0.482761 0.501680
-0.104835 -0.067218 0.479262
0.495178 -0.091651 -0.066833
0.476513 0.489827 -0.079064
-0.066727 0.475756 0.486875
-0.066621 -0.066621 0.475002
0.484255 -0.054304 -0.066515
0.474250 0.481961 -0.042098
-0.066410 0.473500 0.479984
-0.029984 -0.066305 0.472753
0.478321 -0.018004 -0.066413
0.473520 0.478494 -0.006020
-0.066648 0.475195 0.479883
0.006041 -0.066884 0.476881
0.481586 0.018196 -0.067122
0.478579 0.483605 0.030462
-0.067362 0.480289 0.485945
0.042854 -0.067604 0.482011
0.488612 0.055607 -0.068110
0.485622 0.493518 0.068753
-0.068753 0.490206 0.499756
0.082241 -0.069408 0.494877
0.506443 0.096099 -0.070076
0.499639 0.513599 0.110354
-0.070757 0.504492 0.521246
0.125040 -0.071451 0.509441
0.529406 0.141623 -0.072898
0.519756 0.543615 0.158748
-0.074243 0.529350 0.557606
0.176742 -0.075639 0.539304
0.572545 0.195683 -0.077089
0.549640 0.588505 0.219501
-0.079998 0.570379 0.616370
0.244806 -0.082892 0.591014
0.645057 -0.212773 -0.058819
0.513679 0.559105 -0.194607
-0.057905 0.505691 0.544929
-0.177042 -0.056942 0.497281
0.530919 -0.161754 -0.056517
0.493570 0.522465 -0.146921
-0.056098 0.489913 0.514537
-0.132510 -0.055685 0.486311
0.507107 -0.118491 -0.055279
0.482761 0.500154 -0.104835
-0.054878 0.479262 0.493654
-0.091651 -0.054564 0.476513
0.488304 -0.079064 -0.054477
0.475756 0.485348 -0.066621
-0.054390 0.475001 0.482725
-0.054304 -0.054304 0.474250
0.480428 -0.042097 -0.054219
0.473500 0.478450 -0.029984
-0.054133 0.472753 0.476786
-0.018004 -0.054221 0.473520
0.476954 -0.006020 -0.054413
0.475194 0.478337 0.006041
-0.054606 0.476881 0.480035
0.018196 -0.054800 0.478578
0.482049 0.030462 -0.054996
0.480289 0.484386 0.042854
-0.055193 0.482011 0.487050
0.055607 -0.055607 0.485622
0.491948 0.068753 -0.056131
0.490206 0.498176 0.082241
-0.056666 0.494877 0.504855
0.096099 -0.057212 0.499638
0.512003 0.110354 -0.057767
0.504492 0.519642 0.125040
-0.058334 0.509441 0.527795
0.141623 -0.059515 0.519756
0.541983 0.158748 -0.060614
0.529350 0.555955 0.176742
-0.061753 0.539304 0.570876
0.195683 -0.062937 0.549640
0.586819 0.219501 -0.065312
0.570379 0.614637 0.244806
-0.067675 0.591014 0.643278
-0.212773 -0.045670 0.513679
0.557875 -0.194606 -0.044959
0.505690 0.543706 -0.177042
-0.044212 0.497281 0.529705
-0.161754 -0.043882 0.493570
0.521250 -0.146921 -0.043557
0.489913 0.513321 -0.132510
-0.043236 0.486310 0.505891
-0.118491 -0.042921 0.482760
0.498939 -0.104835 -0.042610
0.479262 0.492441 -0.091651
-0.042365 0.476513 0.487092
-0.079064 -0.042298 0.475756
0.484132 -0.066621 -0.042231
0.475001 0.481506 -0.054304
-0.042164 0.474249 0.479207
-0.042097 -0.042097 0.473500
0.477228 -0.029984 -0.042031
0.472753 0.475563 -0.018004
-0.042099 0.473520 0.475729
-0.006020 -0.042248 0.475194
0.477107 0.006041 -0.042398
0.476880 0.478799 0.018196
-0.042549 0.478578 0.480811
0.030462 -0.042701 0.480289
0.483144 0.042854 -0.042854
0.482011 0.485806 0.055607
-0.043175 0.485622 0.490698
0.068753 -0.043583 0.490206
0.496919 0.082241 -0.043998
0.494877 0.503590 0.096099
-0.044421 0.499638 0.510732
0.110354 -0.044853 0.504492
0.518365 0.125039 -0.045293
0.509441 0.526513 0.141623
-0.046210 0.519756 0.540684
0.158747 -0.047063 0.529349
0.554641 0.176742 -0.047948
0.539304 0.569548 0.195683
-0.048867 0.549640 0.585477
0.219501 -0.050711 0.570379
0.613257 0.244806 -0.052545
0.591014 0.641863 -0.321791
-0.049272 0.776873 0.842324
-0.298941 -0.049268 0.776807
0.833800 -0.188115 -0.033512
0.528382 0.561870 -0.171263
-0.033144 0.522585 0.550931
-0.155018 -0.032784 0.516913
0.540652 -0.145088 -0.033771
0.532471 0.552916 -0.136290
-0.035217 0.555277 0.572841
-0.169723 -0.049210 0.775902
0.795771 -0.149371 -0.049256
0.776617 0.792384 -0.129046
-0.049250 0.776522 0.788711
-0.108897 -0.049244 0.776426
0.785571 -0.088844 -0.049210
0.775891 0.782510 -0.068995
-0.049219 0.776038 0.780652
-0.049228 -0.049228 0.776184
0.779300 -0.029515 -0.049233
0.776266 0.778386 -0.009832
-0.049226 0.776147 0.777768
0.009831 -0.049218 0.776028
0.777649 0.029519 -0.049241
0.776389 0.778508 0.049247
-0.049247 0.776479 0.779596
0.069043 -0.049253 0.776570
0.781187 0.088932 -0.049258
0.776660 0.783286 0.108770
-0.049186 0.775525 0.784659
0.098595 -0.037628 0.593281
0.602594 0.111936 -0.036911
0.581980 0.593795 0.124924
-0.036221 0.571100 0.585725
0.144792 -0.037414 0.589916
0.608576 0.211315 -0.049186
0.775523 0.805301 0.232554
-0.049182 0.775459 0.811072
0.254115 -0.049178 0.775396
0.817455 0.276034 -0.049174
0.775332 0.824471 0.298877
-0.049257 0.776641 0.833621
0.321719 -0.049261 0.776698
0.842134 -0.387834 -0.035600
0.936314 1.014084 -0.410459
-0.040553 1.066589 1.143561
-0.188115 -0.020090 0.528382
0.561229 -0.171263 -0.019869
0.522585 0.550292 -0.155018
-0.019654 0.516913 0.540015
-0.145088 -0.020245 0.532471
0.552255 -0.136289 -0.021112
0.555276 0.572147 -0.264470
-0.045970 1.209046 1.238487
-0.235724 -0.046598 1.225584
1.248917 -0.206499 -0.047245
1.242582 1.260510 -0.175360
-0.047538 1.250309 1.263441
-0.144401 -0.047948 1.261083
1.270229 -0.112496 -0.048109
1.265316 1.271218 -0.080532
-0.048278 1.269759 1.273226
-0.048368 -0.048368 1.272132
1.273970 -0.016090 -0.048292
1.270132 1.271152 0.016065
-0.048216 1.268138 1.269156
0.048078 -0.048078 1.264506
1.266333 0.079661 -0.047755
1.256012 1.259441 0.110990
-0.047465 1.248376 1.254199
0.141232 -0.046896 1.233400
1.242344 0.171398 -0.046464
1.222057 1.234893 0.098595
-0.022557 0.593281 0.601840
0.111936 -0.022128 0.581980
0.593059 0.124924 -0.021714
0.571100 0.585007 0.144792
-0.022429 0.589916 0.607839
0.301067 -0.042010 1.104913
1.145966 0.321483 -0.040759
1.071998 1.119908 0.690727
-0.080136 2.107656 2.219401
0.743964 -0.079452 2.089666
2.219572 0.797367 -0.078780
2.071981 2.221510 0.851040
-0.078118 2.054592 2.225246
-0.387807 -0.011861 0.936250
1.013459 -1.056726 -0.034786
2.745933 2.942453 -0.188115
-0.006694 0.528382 0.560910
-0.171263 -0.006620 0.522585
0.549973 -0.155018 -0.006548
0.516913 0.539697 -0.145088
-0.006746 0.532471 0.551925
-0.136289 -0.007034 0.555276
0.571801 -0.236896 -0.013720
1.082990 1.108681 -0.217894
-0.014352 1.132883 1.153737
-0.418758 -0.031922 2.519827
2.554585 -0.349815 -0.031597
2.494156 2.518766 -0.282715
-0.031278 2.469003 2.485333
-0.217320 -0.030966 2.444352
2.454189 -0.153496 -0.030660
2.420188 2.425245 -0.091118
-0.030360 2.396498 2.398422
-0.030065 -0.030065 2.373267
2.373647 0.029777 -0.029777
2.350482 2.350859 0.088519
-0.029494 2.328130 2.329999
0.146267 -0.029216 2.306199
2.311018 0.203124 -0.028943
2.284678 2.293872 0.259190
-0.028675 2.263549 2.278520
0.314563 -0.028413 2.242812
2.264942 0.098595 -0.007516
0.593281 0.601464 0.111936
-0.007373 0.581980 0.592692
0.124924 -0.007235 0.571100
0.584649 0.144792 -0.007473
0.589916 0.607471 0.584356
-0.027168 2.144581 2.222934
0.637557 -0.026932 2.125958
2.219662 0.690727 -0.026700
2.107656 2.218114 0.743964
-0.026473 2.089666 2.218307
0.797367 -0.026249 2.071981
2.220268 0.851040 -0.026028
2.054592 2.224027 -0.387782
0.011860 0.936189 1.013393
-1.056723 0.034787 2.745924
2.942444 -0.188115 0.006694
0.528382 0.560910 -0.171263
0.006620 0.522585 0.549973
-0.155018 0.006548 0.516913
0.539697 -0.145088 0.006746
0.532471 0.551925 -0.136289
0.007034 0.555276 0.571801
-0.236896 0.013720 1.082990
1.108681 -0.217894 0.014352
1.132883 1.153737 -0.418758
0.031922 2.519827 2.554585
-0.349815 0.031597 2.494156
2.518766 -0.282715 0.031278
2.469003 2.485333 -0.217320
0.030966 2.444352 2.454189
-0.153496 0.030660 2.420188
2.425245 -0.091118 0.030360
2.396498 2.398422 -0.030065
0.030066 2.373267 2.373647
0.029777 0.029777 2.350475
2.350852 0.088519 0.029494
2.328124 2.329993 0.146267
0.029216 2.306193 2.311011
0.203124 0.028943 2.284672
2.293866 0.259190 0.028676
2.263549 2.278520 0.314563
0.028413 2.242812 2.264942
0.098595 0.007516 0.593281
0.601464 0.111936 0.007373
0.581979 0.592692 0.124924
0.007235 0.571100 0.584649
0.144791 0.007473 0.589915
0.607471 0.584356 0.027168
2.144581 2.222934 0.637557
0.026933 2.125958 2.219662
0.690727 0.026701 2.107656
2.218114 0.743964 0.026473
2.089666 2.218307 0.797367
0.026249 2.071981 2.220268
0.851040 0.026028 2.054592
2.224027 -1.150301 0.105588
2.777072 3.007735 -1.056723
0.104404 2.745924 2.944090
-0.188115 0.020090 0.528382
0.561229 -0.171263 0.019869
0.522585 0.550292 -0.155018
0.019654 0.516913 0.540015
-0.145088 0.020245 0.532471
0.552255 -0.136289 0.021112
0.555276 0.572147 -0.562779
0.097821 2.572787 2.635436
-0.489694 0.096804 2.546031
2.594503 -0.418758 0.095808
2.519827 2.556181 -0.349815
0.094832 2.494156 2.520353
-0.282715 0.093875 2.469003
2.486909 -0.217320 0.092938
2.444352 2.455753 -0.153496
0.092019 2.420181 2.426789
-0.091118 0.091118 2.396491
2.399953 -0.030065 0.090235
2.373260 2.375165 0.029777
0.089369 2.350475 2.352362
0.088519 0.088519 2.328124
2.331487 0.146267 0.087685
2.306193 2.312490 0.203124
0.086867 2.284672 2.295328
0.259190 0.086064 2.263549
2.279965 0.314563 0.085275
2.242812 2.266369 0.369339
0.084501 2.222453 2.254517
0.423613 0.083741 2.202459
2.244390 0.477477 0.082994
2.182822 2.235975 0.531027
0.082261 2.163532 2.229267
0.584356 0.081540 2.144581
2.224263 0.637557 0.080832
2.125958 2.220970 0.690726
0.080136 2.107650 2.219395
0.743962 0.079452 2.089661
2.219567 0.797365 0.078780
2.071976 2.221504 0.851038
0.078118 2.054588 2.225241
-0.188115 0.033512 0.528382
0.561870 -0.171263 0.033144
0.522585 0.550931 -0.155018
0.032784 0.516913 0.540652
-0.145088 0.033771 0.532470
0.552915 -0.136289 0.035218
0.555276 0.572841 -0.562779
0.163175 2.572787 2.638670
-0.489692 0.161478 2.546024
2.597713 -0.418757 0.159816
2.519819 2.559372 -0.349814
0.158187 2.494148 2.523523
-0.282715 0.156592 2.468995
2.490057 -0.217320 0.155029
2.444345 2.458879 -0.153496
0.153496 2.420181 2.429897
-0.091118 0.151994 2.396491
2.403034 -0.030065 0.150520
2.373260 2.378219 0.029777
0.149075 2.350475 2.355386
0.088519 0.147658 2.328124
2.334480 0.146267 0.146267
2.306193 2.315451 0.203124
0.144902 2.284672 2.298256
0.259190 0.143562 2.263549
2.282858 0.314563 0.142247
2.242812 2.269227 0.369339
0.140956 2.222453 2.257338
0.423613 0.139688 2.202459
2.247173 0.477476 0.138442
2.182817 2.238713 0.531026
0.137218 2.163527 2.231965
0.584354 0.136016 2.144575
2.226920 0.637555 0.134835
2.125952 2.223585 0.690726
0.133674 2.107650 2.221972
0.743962 0.132533 2.089661
2.222100 0.797365 0.131412
2.071976 2.223993 0.851038
0.130309 2.054588 2.227684
-0.188115 0.046977 0.528382
0.562833 -0.171263 0.046462
0.522585 0.551892 -0.155018
0.045957 0.516913 0.541611
-0.145088 0.047340 0.532470
0.553910 -0.136289 0.049368
0.555276 0.573885 -0.188115
0.060503 0.528382 0.564123
-0.171263 0.059839 0.522584
0.553178 -0.155018 0.059190
0.516913 0.542894 -0.145088
0.060971 0.532470 0.555241
-0.136289 0.063582 0.555276
0.575282 -0.188115 0.074108
0.528382 0.565744 -0.171263
0.073294 0.522584 0.554795
-0.155018 0.072499 0.516913
0.544505 -0.145088 0.074681
0.532470 0.556913 -0.136289
0.077880 0.555276 0.577037
